-0.031222 0.126304 0.005149 
-0.044677 0.131204 0.005705 
-0.068301 0.144828 0.041369 
-0.006001 0.130398 0.017899 
-0.017357 0.127613 0.005269 
0.033051 0.107034 0.031954 
0.040087 0.105210 0.017342 
-0.030180 0.106322 0.039974 
0.030419 0.118572 0.018807 
-0.064082 0.159391 -0.016910 
0.044705 0.092788 0.005076 
-0.031675 0.170395 -0.006350 
-0.084852 0.134078 0.047018 
-0.068855 0.122052 0.051757 
0.005955 0.131024 0.017825 
0.040463 0.105142 0.006410 
0.038734 0.102161 -0.004631 
-0.091451 0.134136 0.017103 
-0.081872 0.107166 0.031016 
-0.067218 0.156155 0.017886 
-0.079569 0.152875 0.029931 
0.005960 0.122504 0.034627 
-0.051632 0.145001 0.018480 
-0.077978 0.132550 0.051349 
-0.005907 0.127934 0.027462 
-0.047913 0.129301 0.026965 
-0.082427 0.092813 -0.005560 
0.017440 0.127694 0.018535 
-0.090687 0.120305 0.006680 
-0.029404 0.179030 -0.007880 
-0.079789 0.143760 0.042699 
-0.018288 0.108329 0.041510 
-0.020233 0.181846 -0.018327 
-0.037704 0.167987 -0.013039 
0.005822 0.128060 0.027902 
-0.043539 0.130014 0.017533 
0.018870 0.119862 0.032409 
-0.044010 0.167035 0.002319 
-0.089811 0.132401 0.007057 
-0.057352 0.144989 0.031520 
0.044262 0.093453 0.017642 
0.041234 0.092173 0.028560 
-0.056395 0.154565 0.016878 
-0.020614 0.159773 -0.007175 
-0.072989 0.065612 0.018169 
-0.067397 0.155256 0.005814 
-0.090486 0.118611 0.041215 
0.027314 0.117965 0.028619 
0.041907 0.091639 -0.005569 
-0.070211 0.165303 -0.019466 
-0.006185 0.122729 0.034787 
0.030014 0.093279 0.042148 
-0.017513 0.162126 -0.014549 
-0.076398 0.171291 -0.041102 
-0.085423 0.105386 0.003395 
0.037043 0.110443 0.020723 
-0.006597 0.042728 0.046939 
0.006398 0.043701 0.046826 
-0.055925 0.157606 0.006565 
-0.091145 0.118816 0.029844 
-0.059511 0.128352 0.039963 
-0.017633 0.127605 0.017937 
-0.066633 0.153831 0.030870 
-0.043642 0.169438 -0.005502 
-0.057276 0.043243 0.042862 
-0.076377 0.157221 -0.016889 
-0.043446 0.156050 0.006158 
-0.042712 0.042165 0.042700 
-0.025420 0.088662 0.050383 
-0.014179 0.126270 0.026642 
-0.088258 0.089869 0.006966 
-0.068870 0.157773 -0.006876 
-0.067968 0.142877 -0.007576 
0.018854 0.106293 0.041690 
-0.036487 0.171225 0.000545 
-0.066435 0.117198 -0.009872 
-0.068261 0.170398 -0.043699 
-0.090925 0.146050 0.019038 
0.006786 0.115841 0.038808 
0.031014 0.093070 -0.017798 
0.005698 0.105890 0.043551 
-0.070652 0.130630 0.050250 
0.005975 0.130858 0.005795 
0.018422 0.042318 0.042477 
0.014788 0.090975 0.050966 
-0.005982 0.115409 0.040203 
-0.081131 0.117972 -0.003595 
-0.078703 0.144274 -0.003891 
0.005820 0.106226 -0.020897 
-0.019276 0.119853 0.032806 
-0.005931 0.130215 0.005954 
-0.089332 0.142745 0.029033 
-0.007625 0.123273 -0.009816 
-0.069226 0.178922 -0.054274 
-0.029876 0.124252 0.020967 
-0.084827 0.148987 0.032770 
-0.088852 0.090972 0.017903 
-0.030588 0.122384 -0.006358 
-0.030720 0.117989 0.030617 
-0.078061 0.120653 0.051400 
0.033271 0.108498 -0.007432 
-0.067711 0.092892 -0.016881 
-0.075666 0.091182 -0.013697 
-0.082422 0.095112 0.031088 
-0.085698 0.136903 0.001921 
-0.029280 0.041775 0.051397 
-0.017732 0.042386 0.051684 
-0.065699 0.171007 -0.056644 
-0.029852 0.170905 -0.016561 
-0.056250 0.135013 0.033046 
-0.066613 0.133021 0.044704 
-0.042538 0.155441 -0.007494 
-0.054531 0.071460 0.039704 
-0.041316 0.090692 -0.022588 
-0.017288 0.092177 0.053621 
-0.005981 0.094031 0.054264 
0.042372 0.067256 0.029580 
0.028574 0.116909 -0.003918 
-0.033181 0.045074 0.045115 
-0.053940 0.118566 0.035373 
0.042272 0.079555 -0.005795 
0.029727 0.042550 0.030498 
-0.031564 0.095933 -0.023680 
0.038180 0.105121 0.026695 
-0.028499 0.090492 -0.029085 
-0.017319 0.043794 0.043270 
0.003768 0.047755 0.050204 
0.043267 0.045829 0.027825 
-0.023332 0.181239 -0.011289 
-0.005626 0.056504 0.053882 
0.005294 0.055680 0.053288 
-0.088322 0.105757 0.017298 
-0.056637 0.047018 0.030581 
-0.029624 0.054319 0.039895 
-0.005974 0.105897 0.044067 
-0.021412 0.054698 0.044641 
-0.016149 0.057436 0.050904 
-0.056830 0.146392 -0.002643 
-0.093147 0.119067 0.017995 
-0.061862 0.158417 -0.029303 
-0.085586 0.106840 0.021729 
0.033664 0.054054 0.035084 
0.042771 0.056035 0.031559 
-0.043459 0.117191 0.031704 
-0.068096 0.156721 -0.042617 
0.027238 0.103156 0.039706 
-0.029393 0.178536 -0.014556 
-0.076270 0.091224 0.038342 
-0.019128 0.098595 0.045668 
-0.053091 0.056740 0.029396 
-0.043198 0.055578 0.039084 
-0.083306 0.115643 0.046828 
0.014434 0.127081 0.026297 
-0.038891 0.123761 0.024978 
-0.059436 0.119905 0.039976 
-0.070233 0.154262 -0.031240 
-0.057447 0.152576 0.028451 
-0.048004 0.056366 0.036266 
-0.010726 0.179662 -0.027747 
-0.088229 0.106066 0.008468 
-0.078994 0.153984 0.006519 
-0.029568 0.126072 0.014634 
-0.081736 0.154390 0.017733 
-0.079547 0.104194 -0.006203 
-0.024861 0.122913 0.024543 
-0.066442 0.159957 -0.053371 
-0.078488 0.070528 0.017446 
-0.009671 0.173225 -0.026494 
-0.056628 0.054703 0.007446 
-0.018401 0.122219 -0.007751 
-0.069595 0.146412 -0.018032 
-0.041252 0.123196 -0.009581 
-0.068497 0.148194 -0.028726 
-0.054004 0.055543 0.017767 
-0.016920 0.068217 0.053150 
-0.006072 0.067710 0.056450 
0.007087 0.067322 0.055337 
-0.014317 0.116971 0.037836 
0.053892 0.055755 0.026624 
0.005179 0.093174 0.053587 
-0.043104 0.067439 0.040774 
-0.029307 0.068073 0.041016 
-0.037956 0.161954 -0.012802 
-0.056116 0.065433 0.034198 
-0.076171 0.155559 -0.005927 
-0.055218 0.122506 -0.009465 
0.017700 0.105983 -0.018614 
0.053458 0.065637 0.026434 
-0.086915 0.094416 0.002931 
-0.076426 0.161707 -0.029752 
-0.044096 0.127453 -0.003279 
-0.031292 0.079830 0.043494 
-0.054945 0.106348 -0.018562 
-0.072374 0.110057 -0.009433 
-0.055366 0.091983 -0.021178 
-0.048809 0.066013 0.037396 
-0.047309 0.145156 0.006885 
-0.080391 0.129634 -0.004698 
-0.041802 0.105934 -0.019869 
-0.006321 0.093165 -0.032894 
-0.005971 0.106138 -0.022228 
-0.029483 0.158293 -0.006193 
-0.017795 0.106289 -0.021777 
-0.088526 0.137839 0.039396 
-0.067493 0.128392 -0.008635 
0.046369 0.071513 0.021675 
-0.040957 0.117168 -0.014581 
-0.010666 0.167541 -0.019901 
-0.053255 0.157456 -0.002819 
0.005310 0.093313 -0.030185 
-0.077344 0.072723 0.026655 
-0.062509 0.149934 -0.015032 
-0.068801 0.068573 0.030665 
-0.054525 0.080848 -0.020171 
-0.043677 0.078916 0.042886 
-0.018575 0.078970 0.055735 
-0.006000 0.079455 0.057801 
0.007065 0.081192 0.055819 
-0.085027 0.146034 0.005860 
0.037011 0.110397 0.002653 
-0.068308 0.080332 0.040711 
-0.055894 0.079259 0.043534 
0.038146 0.088106 -0.013868 
-0.064284 0.039642 0.039624 
-0.069870 0.168536 -0.031332 
-0.061796 0.155741 -0.020792 
-0.062285 0.162360 -0.039629 
-0.068686 0.092370 0.042198 
-0.049353 0.139298 0.014795 
-0.078418 0.110126 0.041789 
0.017942 0.079275 0.051886 
0.005327 0.123661 -0.009971 
-0.055677 0.093521 0.044207 
-0.043192 0.092115 0.043269 
-0.029863 0.094012 0.044480 
0.020596 0.087113 0.049233 
0.017210 0.127663 0.005126 
-0.029012 0.106719 -0.020748 
0.018544 0.094811 0.047759 
-0.005887 0.116622 -0.016005 
-0.052819 0.162649 0.002967 
0.035808 0.095859 -0.012033 
-0.091206 0.131415 0.029531 
-0.067874 0.106952 0.040372 
-0.044164 0.104918 0.040171 
0.007496 0.098350 0.048825 
-0.055496 0.103898 0.041141 
-0.066904 0.115717 0.047348 
-0.050152 0.140326 0.002588 
-0.055451 0.132420 -0.004854 
-0.014752 0.181897 -0.026278 
-0.029558 0.161783 -0.014337 
-0.056185 0.111277 0.037371 
-0.040984 0.110496 0.037088 
-0.032006 0.110468 0.037044 
0.025003 0.110611 0.036846 
-0.046987 0.147434 -0.002225 
-0.018341 0.035236 0.050794 
-0.017841 0.170484 -0.018114 
-0.056947 0.034942 0.042372 
0.005833 0.035108 0.042091 
-0.042802 0.035157 0.041687 
-0.066462 0.104777 -0.014858 
0.025745 0.045914 0.038119 
0.037945 0.081717 -0.014155 
-0.084426 0.079771 0.018633 
0.053250 0.047590 0.018190 
0.018642 0.053604 0.046215 
0.007325 0.118243 -0.015301 
-0.031470 0.157066 0.000976 
0.028623 0.056876 0.040764 
0.058159 0.055002 0.018025 
0.016864 0.089935 -0.026910 
0.014578 0.058577 0.050169 
0.036725 0.091818 0.036625 
-0.019880 0.166404 -0.011270 
0.015029 0.067736 0.052067 
0.021052 0.068116 0.048435 
0.029878 0.067994 0.041917 
0.036836 0.067850 0.036641 
0.057475 0.068222 0.017143 
0.031684 0.078509 -0.019208 
-0.076027 0.175704 -0.050694 
-0.065540 0.060789 0.017571 
-0.080603 0.081447 0.030652 
0.018975 0.121506 -0.006946 
0.030684 0.079546 0.043151 
0.037189 0.079248 0.036794 
0.041937 0.079591 0.029591 
0.046032 0.079369 0.017769 
-0.078792 0.070777 0.006856 
-0.029399 0.115917 -0.014706 
-0.086992 0.113518 0.004104 
-0.014219 0.174013 -0.025981 
0.017479 0.035213 -0.005929 
0.016214 0.035847 -0.016213 
0.019325 0.035832 0.031321 
0.043554 0.041110 0.005799 
0.022619 0.040605 -0.007935 
0.019135 0.042782 -0.019210 
0.041463 0.045630 -0.003545 
0.043692 0.041197 0.017720 
0.051287 0.046396 0.005805 
0.028578 0.105181 -0.014238 
0.030675 0.044512 -0.006180 
-0.018412 0.094806 -0.030743 
-0.031548 0.034302 -0.028408 
0.026038 0.047590 -0.016579 
0.055420 0.068638 0.005897 
0.052037 0.055073 -0.002482 
0.056738 0.054222 0.005125 
0.042805 0.055329 -0.006047 
-0.062004 0.167422 -0.052717 
0.034113 0.054178 -0.009483 
0.029518 0.056056 -0.017587 
-0.017789 0.115911 -0.015784 
-0.041784 0.035760 -0.026411 
-0.005189 0.043046 -0.027333 
-0.066406 0.034365 -0.004167 
0.047541 0.071217 0.005426 
0.024914 0.082516 -0.024588 
-0.029902 0.042603 -0.028318 
0.021812 0.051587 -0.023649 
-0.027154 0.035161 0.050927 
0.016118 0.115630 -0.014545 
0.031738 0.067998 -0.018353 
0.041823 0.067520 -0.005516 
0.051487 0.063728 -0.001748 
-0.089330 0.128309 0.042802 
0.045938 0.079631 0.005796 
-0.070543 0.149897 -0.038732 
-0.042962 0.043024 -0.017629 
-0.071968 0.177848 -0.047460 
-0.076053 0.177651 -0.047146 
0.030417 0.118495 0.005738 
-0.077145 0.167706 -0.029880 
0.020267 0.092861 -0.023736 
-0.025481 0.079870 0.051055 
-0.065054 0.035326 0.016224 
-0.064768 0.035079 0.029448 
-0.064427 0.041459 0.030448 
-0.064320 0.035226 0.038791 
-0.067600 0.034030 0.005905 
-0.067953 0.041859 0.006684 
-0.057350 0.043155 0.020023 
-0.063463 0.041432 0.014205 
-0.059413 0.047138 0.006285 
-0.023383 0.065642 0.045098 
-0.063538 0.071665 0.037946 
-0.019304 0.081013 -0.038432 
-0.042721 0.034356 -0.019130 
-0.006902 0.034640 -0.020217 
-0.065679 0.040833 -0.004018 
-0.038391 0.041922 -0.026404 
-0.055659 0.043287 -0.007588 
-0.041678 0.042028 -0.009997 
-0.032229 0.044659 -0.016750 
-0.030739 0.056331 -0.018517 
-0.042903 0.056190 -0.011304 
-0.055028 0.056656 -0.005314 
-0.026186 0.056884 -0.028269 
-0.055219 0.117461 -0.013374 
-0.019066 0.054669 -0.031865 
-0.068763 0.068669 -0.006549 
-0.073050 0.065420 0.005529 
-0.020723 0.067279 -0.036553 
-0.029079 0.067426 -0.029052 
-0.032806 0.066464 -0.019522 
-0.017761 0.034332 -0.025914 
-0.077369 0.073257 -0.004098 
0.015162 0.126104 -0.002664 
-0.084526 0.080057 0.005307 
-0.079352 0.079856 -0.006406 
-0.030973 0.079470 -0.031248 
-0.035514 0.081801 -0.022689 
-0.068141 0.080123 -0.016428 
-0.051293 0.034227 -0.012901 
0.016192 0.080479 -0.029217 
-0.014448 0.087927 -0.038030 
-0.017316 0.043267 -0.028291 
-0.019333 0.097925 -0.024792 
-0.055548 0.033682 -0.006190 
0.007026 0.097842 -0.024605 
-0.014889 0.126068 -0.002521 
0.017521 0.055211 -0.027276 
-0.009537 0.079410 -0.037986 
0.005243 0.039134 -0.021947 
0.017565 0.067934 -0.028939 
-0.005791 0.128077 -0.002851 
0.006266 0.128047 -0.003171 
0.005600 0.034660 -0.017932 
0.029824 0.035914 0.004890 
0.006252 0.045962 -0.026378 
0.014325 0.047348 -0.025151 
0.006041 0.055507 -0.030431 
-0.006134 0.054637 -0.032635 
-0.034669 0.057124 -0.011495 
-0.006845 0.067974 -0.035941 
0.005656 0.067624 -0.032920 
-0.056973 0.065163 -0.009582 
-0.042280 0.069994 -0.016146 
-0.017572 0.070547 -0.038226 
-0.055586 0.072298 -0.016122 
-0.063788 0.071270 -0.013853 
0.005686 0.079055 -0.033919 
-0.003384 0.080451 -0.036723 
-0.024899 0.081500 -0.037108 
-0.041251 0.079138 -0.019775 
-0.073582 0.077703 -0.012202 
-0.018062 0.035263 -0.019540 
-0.031577 0.035849 -0.017967 
-0.006020 0.038124 -0.014518 
-0.017781 0.038255 -0.015450 
0.007534 0.035560 -0.006501 
0.004304 0.038402 -0.007175 
-0.005939 0.038948 -0.005921 
-0.017614 0.038606 -0.005845 
-0.043031 0.034139 -0.005660 
0.018922 0.035108 0.004998 
-0.029913 0.038391 -0.005827 
0.005121 0.034840 0.005585 
0.001035 0.037592 0.000952 
-0.005847 0.038342 0.005908 
-0.042462 0.034314 0.005906 
-0.017873 0.038317 0.005995 
0.028662 0.035841 0.018750 
-0.055026 0.033620 0.005838 
-0.028473 0.038149 0.004419 
-0.000947 0.035737 0.010347 
0.019322 0.035181 0.019662 
-0.034233 0.033759 0.007175 
0.005360 0.034596 0.017987 
-0.000386 0.035146 0.013417 
0.033412 0.037618 0.021008 
-0.005898 0.038178 0.017706 
-0.035244 0.035057 0.017826 
-0.017808 0.038196 0.017811 
-0.026190 0.037759 0.017704 
-0.056325 0.033676 0.017526 
0.001141 0.037661 0.022341 
0.010025 0.035503 0.029656 
0.005501 0.038556 0.029661 
-0.005966 0.038895 0.029925 
-0.033074 0.035522 0.029224 
-0.027772 0.038256 0.032286 
-0.017909 0.038590 0.029617 
-0.041940 0.034370 0.029967 
0.015243 0.035612 0.041269 
-0.055430 0.034256 0.029795 
-0.066051 0.061114 0.005855 
-0.006549 0.035037 0.045396 
-0.030783 0.034760 0.043296 
-0.018083 0.034814 0.045877 
